                  0.2500000000                  -0.0013380427                   0.0001274066                   0.9515601525                   0.6862731175 
                  0.2494331066                  -0.0012205995                   0.0000650849                   0.9517829800                   0.6850757200 
                  0.2479338843                  -0.0010585385                   0.0000533670                   0.9523520700                   0.6817376800 
                  0.2469135802                  -0.0010339672                   0.0000440619                   0.9527109200                   0.6793772100 
                  0.2457466919                  -0.0008384353                   0.0000360440                   0.9531551800                   0.6768704100 
                  0.2430555556                  -0.0005830695                   0.0000259486                   0.9541293700                   0.6708514800 
                  0.2400000000                  -0.0003533210                   0.0000335760                   0.9552230200                   0.6639252200 
                  0.2366863905                  -0.0001115474                   0.0000095946                   0.9563929300                   0.6564776700 
                  0.2331961591                  -0.0001529034                   0.0000131463                   0.9575769300                   0.6485622600 
                  0.2314049587                  -0.0002161675                   0.0000224183                   0.9581920200                   0.6443791100 
                  0.2295918367                  -0.0002596605                   0.0000276374                   0.9587998700                   0.6403138500 
                  0.2259215220                  -0.0003363422                   0.0000414531                   0.9600022700                   0.6318809700 
                  0.2222222222                  -0.0004413241                   0.0000878076                   0.9611977900                   0.6232840767 
                  0.2185223725                  -0.0004719478                   0.0000637074                   0.9623658900                   0.6147015300 
                  0.2148437500                  -0.0005251691                   0.0000740918                   0.9634975900                   0.6060865400 
                  0.2130177515                  -0.0004433690                   0.0000565573                   0.9640675400                   0.6017912500 
                  0.2112029385                  -0.0005645867                   0.0000726775                   0.9646069000                   0.5974897700 
                  0.2076124567                  -0.0005379500                   0.0000690154                   0.9656737800                   0.5889784800 
                  0.2040816327                  -0.0005447507                   0.0001002084                   0.9666916750                   0.5805950200 
                  0.2006172840                  -0.0004980694                   0.0000536726                   0.9676813600                   0.5722736700 
                  0.1972242513                  -0.0005611218                   0.0000551605                   0.9686191500                   0.5641127000 
                  0.1939058172                  -0.0005889466                   0.0000638292                   0.9695283400                   0.5560805500 
                  0.1906640368                  -0.0005748052                   0.0000626854                   0.9704108300                   0.5481778200 
                  0.1875000000                  -0.0005728688                   0.0001694473                   0.9712185500                   0.5405077660 
                  0.1844140393                  -0.0005359640                   0.0000479695                   0.9720379900                   0.5328744300 
                  0.1814058957                  -0.0004576420                   0.0000455158                   0.9728027000                   0.5254741200 
                  0.1784748513                  -0.0003387899                   0.0000504816                   0.9735164400                   0.5182295800 
                  0.1756198347                  -0.0002417362                   0.0000502855                   0.9742612900                   0.5110740000 
                  0.1728395062                  -0.0002677160                   0.0000451475                   0.9749281500                   0.5041371800 
                  0.1701323251                  -0.0001830868                   0.0000447004                   0.9755681800                   0.4973421500 
                  0.1674966048                  -0.0001223389                   0.0000497246                   0.9761914600                   0.4907000300 
                  0.1649305556                  -0.0000964466                   0.0000484718                   0.9767632000                   0.4842313500 
                  0.1624323199                  -0.0000689548                   0.0000304339                   0.9773613300                   0.4778658100 
                  0.1600000000                   0.0000262064                   0.0000791324                   0.9778963650                   0.4717091275 
                  0.1576316801                   0.0000973164                   0.0000156162                   0.9784474200                   0.4656098700 
                  0.1553254438                   0.0001640706                   0.0000277544                   0.9789481200                   0.4596721000 
                  0.1530793877                   0.0002027723                   0.0000277215                   0.9794404100                   0.4538475500 
                  0.1508916324                   0.0002164997                   0.0000407816                   0.9799067600                   0.4481967000 
                  0.1487603306                   0.0002587919                   0.0000407692                   0.9803566300                   0.4425643300 
                  0.1388888889                   0.0002503641                   0.0000800970                   0.9823819400                   0.4174744300 
                  0.1224489796                   0.0008061891                   0.0001256088                   0.9854826400                   0.3729261350 
                  0.0826716842                   0.0013058951                   0.0000286384                   0.9956051500                   0.2607656600 
                  0.0584641530                   0.0012024001                   0.0000091751                   0.9977867800                   0.1895044700 
