                  0.2500000000                   0.0077007144                   0.0018841055                   0.9515601525                   0.6862731175 
                  0.2494331066                   0.0078113017                   0.0015361416                   0.9517829800                   0.6850757200 
                  0.2479338843                   0.0077748049                   0.0013274214                   0.9523520700                   0.6817376800 
                  0.2469135802                   0.0067927056                   0.0008900543                   0.9527109200                   0.6793772100 
                  0.2457466919                   0.0066209822                   0.0010254571                   0.9531551800                   0.6768704100 
                  0.2430555556                   0.0056850761                   0.0010331224                   0.9541293700                   0.6708514800 
                  0.2400000000                   0.0050723399                   0.0014291857                   0.9552230200                   0.6639252200 
                  0.2366863905                   0.0038858193                   0.0014912972                   0.9563929300                   0.6564776700 
                  0.2331961591                   0.0033732169                   0.0012848442                   0.9575769300                   0.6485622600 
                  0.2314049587                   0.0043500630                   0.0004749989                   0.9581920200                   0.6443791100 
                  0.2295918367                   0.0031032032                   0.0010690991                   0.9587998700                   0.6403138500 
                  0.2259215220                   0.0030230027                   0.0008380662                   0.9600022700                   0.6318809700 
                  0.2222222222                   0.0037342431                   0.0015787285                   0.9611977900                   0.6232840767 
                  0.2185223725                   0.0024780269                   0.0012455309                   0.9623658900                   0.6147015300 
                  0.2148437500                   0.0024592182                   0.0013456173                   0.9634975900                   0.6060865400 
                  0.2130177515                   0.0011811530                   0.0016833253                   0.9640675400                   0.6017912500 
                  0.2112029385                   0.0024144006                   0.0014759262                   0.9646069000                   0.5974897700 
                  0.2076124567                   0.0021639059                   0.0013892038                   0.9656737800                   0.5889784800 
                  0.2040816327                   0.0012898011                   0.0014664156                   0.9666916750                   0.5805950200 
                  0.2006172840                   0.0016749483                   0.0005931036                   0.9676813600                   0.5722736700 
                  0.1972242513                   0.0013822502                   0.0010082280                   0.9686191500                   0.5641127000 
                  0.1939058172                   0.0016825050                   0.0004644751                   0.9695283400                   0.5560805500 
                  0.1906640368                   0.0011505645                   0.0007220587                   0.9704108300                   0.5481778200 
                  0.1875000000                   0.0009937348                   0.0019007382                   0.9712185500                   0.5405077660 
                  0.1844140393                   0.0007840765                   0.0014330745                   0.9720379900                   0.5328744300 
                  0.1814058957                   0.0009222844                   0.0011576678                   0.9728027000                   0.5254741200 
                  0.1784748513                   0.0002800432                   0.0011732279                   0.9735164400                   0.5182295800 
                  0.1756198347                  -0.0002249901                   0.0011987998                   0.9742612900                   0.5110740000 
                  0.1728395062                  -0.0000934177                   0.0017857585                   0.9749281500                   0.5041371800 
                  0.1701323251                   0.0001087669                   0.0016840367                   0.9755681800                   0.4973421500 
                  0.1674966048                  -0.0000429140                   0.0014700254                   0.9761914600                   0.4907000300 
                  0.1649305556                   0.0000312564                   0.0015700767                   0.9767632000                   0.4842313500 
                  0.1624323199                   0.0004402231                   0.0017061362                   0.9773613300                   0.4778658100 
                  0.1600000000                   0.0030303003                   0.0036849227                   0.9778963650                   0.4717091275 
                  0.1576316801                   0.0044883836                   0.0012628758                   0.9784474200                   0.4656098700 
                  0.1553254438                   0.0040232793                   0.0007564384                   0.9789481200                   0.4596721000 
                  0.1530793877                   0.0040888932                   0.0008678872                   0.9794404100                   0.4538475500 
                  0.1508916324                   0.0039874458                   0.0011884054                   0.9799067600                   0.4481967000 
                  0.1487603306                   0.0037880879                   0.0010368922                   0.9803566300                   0.4425643300 
                  0.1388888889                   0.0027388750                   0.0029714485                   0.9823819400                   0.4174744300 
                  0.1224489796                   0.0014931705                   0.0009230855                   0.9854826400                   0.3729261350 
                  0.0826716842                   0.0011406053                   0.0002516641                   0.9956051500                   0.2607656600 
                  0.0584641530                   0.0008584096                   0.0002977218                   0.9977867800                   0.1895044700 
