                  0.2500000000                   0.0031413263                   0.0010383677                   0.9515601525                   0.6862731175 
                  0.2494331066                   0.0029125261                   0.0008536545                   0.9517829800                   0.6850757200 
                  0.2479338843                   0.0031087513                   0.0009500012                   0.9523520700                   0.6817376800 
                  0.2469135802                   0.0033719924                   0.0008741360                   0.9527109200                   0.6793772100 
                  0.2457466919                   0.0036432944                   0.0009740700                   0.9531551800                   0.6768704100 
                  0.2430555556                   0.0033515807                   0.0008201971                   0.9541293700                   0.6708514800 
                  0.2400000000                   0.0024101101                   0.0010609972                   0.9552230200                   0.6639252200 
                  0.2366863905                   0.0028586535                   0.0008221488                   0.9563929300                   0.6564776700 
                  0.2331961591                   0.0015483781                   0.0006746910                   0.9575769300                   0.6485622600 
                  0.2314049587                   0.0019417226                   0.0006920479                   0.9581920200                   0.6443791100 
                  0.2295918367                   0.0021975732                   0.0005152536                   0.9587998700                   0.6403138500 
                  0.2259215220                   0.0020397737                   0.0007010161                   0.9600022700                   0.6318809700 
                  0.2222222222                   0.0014874846                   0.0004695873                   0.9611977900                   0.6232840767 
                  0.2185223725                   0.0021543743                   0.0006212387                   0.9623658900                   0.6147015300 
                  0.2148437500                   0.0012853239                   0.0004170727                   0.9634975900                   0.6060865400 
                  0.2130177515                   0.0016222503                   0.0003010000                   0.9640675400                   0.6017912500 
                  0.2112029385                   0.0011628543                   0.0002601245                   0.9646069000                   0.5974897700 
                  0.2076124567                   0.0014749148                   0.0004378625                   0.9656737800                   0.5889784800 
                  0.2040816327                   0.0011997808                   0.0006004661                   0.9666916750                   0.5805950200 
                  0.2006172840                   0.0008587670                   0.0002755057                   0.9676813600                   0.5722736700 
                  0.1972242513                   0.0009522561                   0.0002683832                   0.9686191500                   0.5641127000 
                  0.1939058172                   0.0005851602                   0.0001083399                   0.9695283400                   0.5560805500 
                  0.1906640368                   0.0007369948                   0.0001314258                   0.9704108300                   0.5481778200 
                  0.1875000000                   0.0007216253                   0.0004258759                   0.9712185500                   0.5405077660 
                  0.1844140393                   0.0006627599                   0.0001316421                   0.9720379900                   0.5328744300 
                  0.1814058957                   0.0006368707                   0.0002060094                   0.9728027000                   0.5254741200 
                  0.1784748513                   0.0005997595                   0.0001846166                   0.9735164400                   0.5182295800 
                  0.1756198347                   0.0005433355                   0.0001260721                   0.9742612900                   0.5110740000 
                  0.1728395062                   0.0006667464                   0.0001333363                   0.9749281500                   0.5041371800 
                  0.1701323251                   0.0006855801                   0.0001367361                   0.9755681800                   0.4973421500 
                  0.1674966048                   0.0007382658                   0.0000917105                   0.9761914600                   0.4907000300 
                  0.1649305556                   0.0007574193                   0.0000919092                   0.9767632000                   0.4842313500 
                  0.1624323199                   0.0007728872                   0.0001322020                   0.9773613300                   0.4778658100 
                  0.1600000000                   0.0007138039                   0.0002433359                   0.9778963650                   0.4717091275 
                  0.1576316801                   0.0006282965                   0.0001300538                   0.9784474200                   0.4656098700 
                  0.1553254438                   0.0005658118                   0.0001603212                   0.9789481200                   0.4596721000 
                  0.1530793877                   0.0005318226                   0.0001694920                   0.9794404100                   0.4538475500 
                  0.1508916324                   0.0005546735                   0.0001656731                   0.9799067600                   0.4481967000 
                  0.1487603306                   0.0004433719                   0.0001139301                   0.9803566300                   0.4425643300 
                  0.1388888889                   0.0008203350                   0.0002413953                   0.9823819400                   0.4174744300 
                  0.1224489796                   0.0003624745                   0.0001210376                   0.9854826400                   0.3729261350 
                  0.0826716842                   0.0001861177                   0.0000846852                   0.9956051500                   0.2607656600 
                  0.0584641530                   0.0001107352                   0.0000583219                   0.9977867800                   0.1895044700 
