                  0.2494331066                   0.0005640703                   0.0000041713                   0.9517829800                   0.6850757200 
                  0.2479338843                   0.0010642732                   0.0000082630                   0.9523520700                   0.6817376800 
                  0.2469135802                   0.0012843985                   0.0000047995                   0.9527109200                   0.6793772100 
                  0.2457466919                   0.0014141164                   0.0000077782                   0.9531551800                   0.6768704100 
                  0.2430555556                   0.0017063045                   0.0000059288                   0.9541293700                   0.6708514800 
                  0.2400000000                   0.0019377012                   0.0000077191                   0.9552155600                   0.6639720500 
                  0.2366863905                   0.0020121104                   0.0000167821                   0.9563929300                   0.6564776700 
                  0.2331961591                   0.0021327804                   0.0000160778                   0.9575769300                   0.6485622600 
                  0.2314049587                   0.0021540608                   0.0000131851                   0.9581920200                   0.6443791100 
                  0.2295918367                   0.0021987208                   0.0000149627                   0.9587998700                   0.6403138500 
                  0.2259215220                   0.0021726429                   0.0000108430                   0.9600022700                   0.6318809700 
                  0.2222222222                   0.0022083497                   0.0000172335                   0.9611950300                   0.6233146600 
                  0.2185223725                   0.0020753854                   0.0000164305                   0.9623658900                   0.6147015300 
                  0.2148437500                   0.0019657762                   0.0000188142                   0.9634975900                   0.6060865400 
                  0.2130177515                   0.0017950382                   0.0000084707                   0.9640675400                   0.6017912500 
                  0.2112029385                   0.0018487706                   0.0000244780                   0.9646069000                   0.5974897700 
                  0.2076124567                   0.0016666642                   0.0000154845                   0.9656737800                   0.5889784800 
                  0.2040816327                   0.0014996319                   0.0000132251                   0.9666808900                   0.5806065300 
                  0.2006172840                   0.0012626249                   0.0000194241                   0.9676813600                   0.5722736700 
                  0.1972242513                   0.0011575028                   0.0000217830                   0.9686191500                   0.5641127000 
                  0.1939058172                   0.0009982744                   0.0000175556                   0.9695283400                   0.5560805500 
                  0.1906640368                   0.0008269200                   0.0000106109                   0.9704108300                   0.5481778200 
                  0.1875000000                   0.0006619713                   0.0000131027                   0.9711190300                   0.5406353900 
                  0.1844140393                   0.0005056170                   0.0000226279                   0.9720379900                   0.5328744300 
                  0.1814058957                   0.0003358096                   0.0000167988                   0.9728027000                   0.5254741200 
                  0.1784748513                   0.0001699862                   0.0000103988                   0.9735164400                   0.5182295800 
                  0.1756198347                   0.0000294383                   0.0000132361                   0.9742612900                   0.5110740000 
                  0.1728395062                  -0.0000870984                   0.0000174873                   0.9749281500                   0.5041371800 
                  0.1701323251                  -0.0002096364                   0.0000245488                   0.9755681800                   0.4973421500 
                  0.1674966048                  -0.0003122485                   0.0000194857                   0.9761914600                   0.4907000300 
                  0.1649305556                  -0.0004082043                   0.0000212070                   0.9767632000                   0.4842313500 
                  0.1624323199                  -0.0005256303                   0.0000229419                   0.9773613300                   0.4778658100 
                  0.1600000000                  -0.0006689020                   0.0000141124                   0.9777889600                   0.4722925600 
                  0.1576316801                  -0.0007344450                   0.0000173600                   0.9784474200                   0.4656098700 
                  0.1553254438                  -0.0008077602                   0.0000276849                   0.9789481200                   0.4596721000 
                  0.1530793877                  -0.0009179712                   0.0000306010                   0.9794404100                   0.4538475500 
                  0.1508916324                  -0.0010512493                   0.0000302931                   0.9799067600                   0.4481967000 
                  0.1487603306                  -0.0011552095                   0.0000144294                   0.9803566300                   0.4425643300 
                  0.1388888889                  -0.0012701035                   0.0000268093                   0.9823819400                   0.4174744300 
                  0.1224489796                  -0.0019675008                   0.0000098612                   0.9854630600                   0.3731909800 
                  0.0826716842                  -0.0023026950                   0.0000116507                   0.9956051500                   0.2607656600 
                  0.0584641530                  -0.0019792462                   0.0000097055                   0.9977867800                   0.1895044700 
