                  0.2500000000                   0.0019077370                   0.0000452297                   0.9515422500                   0.6863363100 
                  0.2494331066                   0.0016922439                   0.0000455708                   0.9517829800                   0.6850757200 
                  0.2479338843                   0.0017074966                   0.0000447646                   0.9523520700                   0.6817376800 
                  0.2469135802                   0.0019435909                   0.0000305820                   0.9527109200                   0.6793772100 
                  0.2457466919                   0.0018592397                   0.0000331352                   0.9531551800                   0.6768704100 
                  0.2430555556                   0.0019378877                   0.0000251485                   0.9541293700                   0.6708514800 
                  0.2400000000                   0.0021478379                   0.0000197682                   0.9552155600                   0.6639720500 
                  0.2366863905                   0.0022842184                   0.0000172714                   0.9563929300                   0.6564776700 
                  0.2331961591                   0.0024902332                   0.0000223396                   0.9575769300                   0.6485622600 
                  0.2314049587                   0.0027985178                   0.0000335765                   0.9581920200                   0.6443791100 
                  0.2295918367                   0.0027908842                   0.0000262093                   0.9587998700                   0.6403138500 
                  0.2259215220                   0.0031408569                   0.0000239405                   0.9600022700                   0.6318809700 
                  0.2222222222                   0.0036760370                   0.0000168772                   0.9611950300                   0.6233146600 
                  0.2185223725                   0.0039497624                   0.0000416678                   0.9623658900                   0.6147015300 
                  0.2148437500                   0.0043789864                   0.0000482020                   0.9634975900                   0.6060865400 
                  0.2130177515                   0.0043503651                   0.0000511489                   0.9640675400                   0.6017912500 
                  0.2112029385                   0.0048322349                   0.0000454928                   0.9646069000                   0.5974897700 
                  0.2076124567                   0.0051137867                   0.0000404625                   0.9656737800                   0.5889784800 
                  0.2040816327                   0.0053933602                   0.0000397458                   0.9666808900                   0.5806065300 
                  0.2006172840                   0.0056043743                   0.0000159399                   0.9676813600                   0.5722736700 
                  0.1972242513                   0.0061562421                   0.0000321029                   0.9686191500                   0.5641127000 
                  0.1939058172                   0.0066420897                   0.0000195164                   0.9695283400                   0.5560805500 
                  0.1906640368                   0.0070446367                   0.0000209493                   0.9704108300                   0.5481778200 
                  0.1875000000                   0.0075020295                   0.0000257417                   0.9711190300                   0.5406353900 
                  0.1844140393                   0.0078578142                   0.0000346614                   0.9720379900                   0.5328744300 
                  0.1814058957                   0.0080072876                   0.0000209181                   0.9728027000                   0.5254741200 
                  0.1784748513                   0.0079396522                   0.0000265810                   0.9735164400                   0.5182295800 
                  0.1756198347                   0.0078034918                   0.0000351513                   0.9742612900                   0.5110740000 
                  0.1728395062                   0.0083551874                   0.0000545322                   0.9749281500                   0.5041371800 
                  0.1701323251                   0.0085431803                   0.0000557128                   0.9755681800                   0.4973421500 
                  0.1674966048                   0.0087400097                   0.0000503632                   0.9761914600                   0.4907000300 
                  0.1649305556                   0.0089359411                   0.0000532384                   0.9767632000                   0.4842313500 
                  0.1624323199                   0.0093196205                   0.0000570198                   0.9773613300                   0.4778658100 
                  0.1600000000                   0.0092508389                   0.0000560770                   0.9777889600                   0.4722925600 
                  0.1576316801                   0.0092469228                   0.0000404698                   0.9784474200                   0.4656098700 
                  0.1553254438                   0.0089864251                   0.0000223766                   0.9789481200                   0.4596721000 
                  0.1530793877                   0.0092734819                   0.0000266509                   0.9794404100                   0.4538475500 
                  0.1508916324                   0.0097868346                   0.0000376105                   0.9799067600                   0.4481967000 
                  0.1487603306                   0.0099151788                   0.0000327804                   0.9803566300                   0.4425643300 
                  0.1388888889                   0.0103746600                   0.0000466833                   0.9823819400                   0.4174744300 
                  0.1224489796                   0.0098621125                   0.0000213829                   0.9854630600                   0.3731909800 
                  0.0826716842                   0.0084983013                   0.0000069962                   0.9956051500                   0.2607656600 
                  0.0584641530                   0.0068621228                   0.0000093089                   0.9977867800                   0.1895044700 
